x y z r g b
2.4332 8.48835 0.00499964 127 110 68
2.47228 9.0042 0.005 121 105 62
2.51826 9.61117 0.00499988 121 105 62
2.50968 9.49573 0.20488 41.8823 71.2 41.1843
2.5096 9.49277 0.373229 41.1843 67.0117 39.7882
2.50979 9.49343 0.539101 55.1451 63.5215 24.4314
2.83045 13.7318 0.005 100 88 52
2.97262 15.6084 0.005 128 110 65
3.17122 18.2297 0.00499988 119 105 62
3.45846 22.0209 0.0174946 123 105 62
3.57563 23.5637 0.364249 121 107 59
3.54264 23.1226 0.874494 98 108 85
3.54973 23.211 1.35069 81 86 70
3.5644 23.3994 1.8305 144 153 130
4.47568 35.4108 3.36021 130 142 91
4.39328 34.3156 4.05049 128 144 80
4.45994 35.1865 4.87584 125 135 63
4.56727 36.593 5.8083 135 155 70
4.46165 35.1922 6.41608 82 106 0
3.50504 22.5799 5.1146 117 120 119
4.33392 33.4926 7.65511 92 110 14
2.28892 6.74513 0.00500011 110 100 56
2.3086 7.01546 0.00499988 109 96 56
2.33059 7.3177 0.005 119 107 61
2.35538 7.65825 0.00499988 118 103 61
2.38355 8.04533 0.00499964 123 110 63
2.41589 8.48969 0.005 127 110 68
2.45344 9.00565 0.00500011 121 105 62
2.49762 9.61277 0.00499976 121 105 62
2.48752 9.47167 0.210974 118 103 62
2.57203 10.6338 0.130389 53.749 62.8235 35.6
2.6449 11.635 0.134939 41.8823 70.5019 41.1843
2.64523 11.6371 0.35065 41.1843 65.6157 39.0902
2.93419 15.6115 0.005 125 109 63
3.03783 17.0339 0.145602 57.9372 62.8235 39.0902
3.41071 22.1592 0.005 123 107 62
3.88614 28.6917 0.005 119 105 58
3.48138 23.1202 0.87487 97 113 73
3.50198 23.3979 1.34649 107 114 86
4.33404 34.8253 1.83033 89 96 53
4.17904 32.6874 2.53122 126 141 109
4.17842 32.6709 3.23206 103 120 32
4.3105 34.4764 4.06135 82 94 0
4.3617 35.1705 4.87376 94 112 29
4.29229 34.2093 5.52821 82 109 24
3.43981 22.506 4.62781 98 100 0
4.20785 33.0341 6.83643 112 114 103
4.12555 31.8974 7.35268 108 97 97
2.27678 6.74601 0.00499988 110 100 56
2.29565 7.01641 0.005 109 96 56
2.31675 7.31872 0.00500011 119 107 61
2.34053 7.65935 0.005 119 105 62
2.36755 8.04651 0.005 123 110 63
2.39857 8.49097 0.00499988 127 110 68
2.43459 9.00705 0.00499988 119 105 62
2.47697 9.61431 0.00499988 121 105 62
2.52763 10.3401 0.005 118 103 62
2.58932 11.224 0.00499988 116 102 62
2.66617 12.3252 0.00500011 118 102 61
2.6924 12.6989 0.176033 54.447 64.9176 21.6392
2.89574 15.6144 0.00500023 125 109 63
2.99594 17.0484 0.144299 41.8823 66.3137 40.4863
2.99983 17.1002 0.478934 41.8823 73.9921 42.5804
3.80891 28.6982 0.005 119 105 59
3.43848 23.3804 0.862967 140 162 108
3.42988 23.2515 1.35006 92 107 95
4.0844 32.6236 1.83044 102 115 89
4.08522 32.627 2.52974 111 114 127
4.08566 32.6249 3.22969 122 135 137
4.08067 32.5452 3.92563 103 108 106
4.07751 32.4916 4.62255 123 135 49
4.19974 34.2321 5.53017 117 132 54
3.38447 22.5617 4.63511 106 123 31
3.3861 22.5793 5.11319 198 193 141
3.43195 23.2291 5.71513 135 95 84
2.26464 6.74687 0.00499988 110 100 56
2.28271 7.01732 0.00500011 109 96 56
2.30291 7.31969 0.00500011 119 107 61
2.32567 7.66039 0.005 119 105 62
2.35155 8.04764 0.00500011 123 110 63
2.38125 8.4922 0.005 127 110 68
2.41574 9.00839 0.00499988 119 105 62
2.45632 9.61579 0.00499988 121 105 62
2.50482 10.3418 0.005 118 103 62
2.56389 11.2258 0.00499988 116 102 62
2.59859 11.7439 0.115135 118 102 61
2.6131 11.9588 0.298315 100 88 51
2.85729 15.6173 0.00500011 119 103 61
2.95722 17.1113 0.137303 125 110 63
2.95799 17.1187 0.477513 128 112 66
3.73167 28.7044 0.00500023 119 103 58
3.37247 23.3174 0.866156 134 144 96
3.39336 23.6242 1.34151 77 88 62
3.99076 32.5595 1.83052 112 117 122
3.99603 32.6297 2.52973 109 106 114
3.9966 32.6295 3.22969 100 96 112
3.99099 32.5369 3.92469 99 98 109
3.98489 32.4369 4.61694 107 96 95
3.98075 32.3663 5.31097 153 147 135
3.32886 22.6176 4.64246 151 163 90
3.31074 22.3411 5.07335 85 64 69
3.98119 32.3465 7.43531 88 88 106
2.25249 6.74768 0.00499988 110 98 57
2.26976 7.01819 0.00499976 109 96 56
2.28907 7.32063 0.00499988 119 107 61
2.31082 7.6614 0.005 119 105 62
2.33554 8.04873 0.00499988 127 110 66
2.36392 8.49337 0.00499988 127 110 68
2.39688 9.00968 0.00499988 119 105 62
2.43566 9.6172 0.00500011 116 102 59
2.42707 9.47992 0.210049 57.9372 68.4078 21.6392
2.53845 11.2276 0.00500011 116 102 62
2.60878 12.3293 0.005 119 103 62
2.69893 13.7417 0.00500011 107 90 52
2.81883 15.62 0.00500011 119 103 61
2.93189 17.3899 0.105039 54.447 58.6353 37.6941
3.23709 22.1726 0.00500011 130 116 68
3.53309 26.8079 0.138318 116 102 57
3.31354 23.359 0.864453 78 83 63
3.34915 23.9107 1.33497 146 158 142
3.90163 32.5595 1.83059 168 173 169
3.90827 32.6544 2.53025 98 89 96
3.90963 32.6666 3.23123 126 145 129
3.90285 32.5514 3.92537 125 133 132
3.89637 32.4408 4.61684 97 101 108
3.89155 32.3563 5.3092 127 130 132
3.8901 32.3244 6.0088 110 103 106
3.24866 22.2879 5.064 126 138 65
3.32394 23.4582 5.75692 87 109 26
2.24034 6.74846 0.005 110 98 57
2.25681 7.01902 0.00500011 110 96 57
2.27522 7.32152 0.00500011 119 107 61
2.29596 7.66236 0.005 119 105 62
2.31953 8.04976 0.005 127 110 66
2.34659 8.4945 0.00500011 125 109 69
2.37802 9.01091 0.00500023 119 105 62
2.415 9.61856 0.005 116 102 59
2.45919 10.3448 0.005 118 103 62
2.51301 11.2293 0.005 118 103 62
2.53984 11.6685 0.130059 42.5804 72.5961 43.2784
2.54166 11.6954 0.342307 41.8823 71.898 41.8823
2.54081 11.6786 0.56035 73.9921 76.0863 24.4314
2.88754 17.3826 0.106242 121 107 61
3.17918 22.1767 0.005 130 116 68
3.57712 28.7161 0.00500035 121 105 61
3.81218 32.573 0.434661 103 110 122
3.81166 32.5549 1.13346 109 99 102
3.81371 32.5791 1.83067 137 151 142
3.97151 35.162 2.58864 109 117 99
3.9834 35.3468 3.35608 48 53 45
3.97451 35.1905 4.10991 96 100 27
3.88844 33.7675 4.74046 92 77 76
3.80388 32.3701 5.31024 110 110 116
3.19045 22.299 4.59664 81 97 2
3.22639 22.8819 5.16125 101 97 101
3.25003 23.2628 5.71939 108 117 42
2.2282 6.74921 0.00500011 110 98 57
2.24386 7.01982 0.00499988 110 96 57
2.26137 7.32237 0.00499976 119 107 61
2.2811 7.66328 0.00500011 119 105 62
2.30352 8.05075 0.00499988 127 110 66
2.32926 8.49557 0.005 125 109 69
2.35916 9.01208 0.00499988 119 105 62
2.39433 9.61985 0.00499988 116 102 59
2.43637 10.3463 0.00499988 118 103 62
2.48757 11.2309 0.00499988 118 103 62
2.53395 12.0316 0.0618725 50.9569 58.6353 23.0353
2.51444 11.6904 0.34341 107 90 52
2.74188 15.6252 0.00500011 119 103 62
2.53522 12.0438 0.731665 121 107 61
3.12127 22.1806 0.00500023 134 119 71
3.36173 26.3331 0.172309 53.051 58.6353 27.9216
3.72663 32.6346 0.432108 96 95 104
3.72552 32.6053 1.13249 120 114 119
3.8557 34.8446 1.83072 157 162 153
3.87562 35.1778 2.58895 145 156 152
3.87646 35.1815 3.34817 61 64 42
3.8686 35.035 4.0987 111 127 50
3.79047 33.6759 4.73146 108 125 77
3.87517 35.1264 5.63239 79 99 9
3.13042 22.2728 4.5925 91 115 0
3.98901 37.0666 7.49578 102 99 110
3.18678 23.2306 5.71267 91 112 49
2.21604 6.74991 0.005 110 98 57
2.2309 7.02058 0.00499988 110 96 57
2.24751 7.32318 0.00499988 116 102 59
2.26623 7.66415 0.005 119 105 62
2.28751 8.0517 0.005 127 110 66
2.31193 8.4966 0.00499976 125 109 69
2.34029 9.0132 0.005 121 107 62
2.33914 8.98967 0.170501 116 102 59
2.41355 10.3476 0.00499988 118 103 62
2.46212 11.2324 0.00499988 118 103 62
2.51048 12.1127 0.0468919 118 102 61
2.50769 12.0584 0.283112 55.8431 62.1255 22.3372
2.7034 15.6277 0.00498617 53.749 64.2196 21.6392
2.84753 18.2532 0.005 112 100 56
2.91278 19.4378 0.261802 134 119 71
3.26805 25.9104 0.202248 118 103 59
3.88057 37.0678 0.225608 116 115 134
3.80782 35.7299 1.05983 135 136 137
3.76066 34.8592 1.8308 88 77 82
3.77385 35.0881 2.58681 62 66 56
3.77964 35.1819 3.34802 98 106 81
3.77447 35.0764 4.10131 108 124 31
3.69973 33.7052 4.7338 99 118 12
3.80219 35.5573 5.68227 79 98 0
3.09227 22.641 4.64392 125 140 80
3.12105 23.1568 5.20545 98 76 78
3.12375 23.1984 5.706 116 121 55
2.20389 6.75059 0.00499976 110 98 57
2.21795 7.02129 0.005 110 96 57
2.23366 7.32395 0.005 116 102 59
2.25137 7.66498 0.00500011 123 110 63
2.27149 8.05259 0.00500011 127 110 66
2.29459 8.49757 0.005 125 109 69
2.32142 9.01427 0.005 121 107 62
2.32036 8.99117 0.170387 116 102 59
2.39072 10.3489 0.00500011 118 103 62
2.43666 11.2339 0.00500011 123 109 66
2.46204 11.7207 0.121121 60.0314 64.2196 46.7686
2.53152 13.059 0.118707 105 90 52
2.52848 12.9963 0.375616 41.8823 73.2941 42.5804
2.80125 18.256 0.005 112 100 56
2.8636 19.4527 0.2607 46.0706 56.5412 22.3372
3.34516 28.7319 0.005 112 98 56
3.77859 37.0764 0.225549 130 138 147
3.65619 34.7051 1.08392 73 81 62
3.67059 34.9706 1.83088 118 138 103
3.67435 35.0308 2.58544 93 105 86
3.67456 35.0227 3.34044 107 93 103
3.67833 35.0833 4.10151 117 120 80
3.65631 34.6475 4.82149 155 164 111
3.60657 33.6793 5.46195 84 103 22
3.03313 22.6477 4.64446 124 129 69
3.05464 23.0533 5.18794 125 135 70
3.06094 23.1663 5.69939 86 98 0
2.20498 7.02197 0.005 110 96 57
2.2198 7.32468 0.00499988 116 102 59
2.23649 7.66576 0.00499988 123 110 63
2.25547 8.05344 0.005 121 107 61
2.27725 8.49849 0.00499988 125 109 69
2.29909 8.94429 0.0253775 121 107 62
2.33231 9.62336 0.00500011 118 103 59
2.32458 9.46195 0.215754 118 103 62
2.4112 11.2353 0.00500011 123 109 66
2.46517 12.338 0.005 118 102 61
2.49867 13.0203 0.125356 41.8823 71.898 42.5804
2.6264 15.632 0.005 123 109 66
2.71138 17.3666 0.109387 116 100 58
2.8729 20.666 0.147577 132 123 68
2.87839 20.7711 0.562663 118 103 59
3.61041 35.732 0.288561 57 66 56
3.57944 35.0858 1.07524 125 148 96
3.64097 36.3301 1.83096 62 72 61
3.58245 35.096 4.10214 147 156 110
3.5582 34.5882 4.81558 109 128 54
3.51409 33.676 5.46109 115 130 40
2.97396 22.6543 4.64503 98 120 9
2.99099 22.9933 5.17761 109 126 63
2.99833 23.1344 5.69283 112 128 73
2.19202 7.02261 0.005 110 96 57
2.20594 7.32537 0.005 116 102 59
2.22162 7.6665 0.00500011 123 110 63
2.23945 8.05424 0.00500011 121 107 61
2.25991 8.49936 0.00500011 125 109 69
2.28367 9.01622 0.005 121 107 62
2.28111 8.9575 0.179722 118 103 59
2.34504 10.3513 0.005 114 102 59
2.38574 11.2366 0.005 123 109 66
2.43644 12.3395 0.00499988 119 105 61
2.48954 13.4939 0.0477167 107 91 53
2.58789 15.6341 0.00500011 123 107 63
2.66623 17.3364 0.113201 116 100 58
2.76841 19.5566 0.251526 132 123 68
3.19043 28.7413 0.005 123 110 63
3.51238 35.7398 0.288498 116 103 63
3.25285 30.0777 1.1921 105 120 56
3.25882 30.1961 1.83103 107 114 110
3.49955 35.4189 2.59442 81 91 78
3.48389 35.0648 3.34212 111 123 99
3.88212 43.703 4.70441 135 144 78
3.46163 34.554 4.81204 99 123 52
3.42179 33.6756 5.46061 119 127 47
2.91478 22.661 4.64561 124 130 137
2.9582 23.5942 5.27606 112 124 46
2.93621 23.1083 5.68742 114 126 24
2.17906 7.02321 0.00499988 110 96 57
2.19208 7.32601 0.00500011 116 102 59
2.20675 7.66719 0.00500023 123 110 63
2.22342 8.05499 0.00499988 121 107 61
2.24256 8.50018 0.005 123 105 68
2.26192 8.94989 0.0242923 121 107 62
2.29094 9.62539 0.005 118 103 59
2.3222 10.3524 0.005 114 102 59
2.36027 11.2378 0.005 123 109 66
2.3652 11.3488 0.192021 60.7294 67.7098 21.6392
2.45784 13.5064 0.0459248 107 91 53
2.54938 15.636 0.00500023 123 107 63
2.61917 17.2571 0.122739 123 107 62
2.83151 22.1978 0.00500011 130 123 66
3.05253 27.3364 0.103626 130 116 68
3.19404 30.6195 0.527452 41.8823 69.8039 41.1843
3.17309 30.1195 1.19127 133 157 105
3.17241 30.0912 1.8311 83 93 63
3.38252 34.9634 2.58379 130 138 142
3.39807 35.3102 3.35344 102 112 93
3.48561 37.3285 4.25794 158 164 166
3.37386 34.7184 4.82709 133 136 74
3.32635 33.6015 5.45153 95 84 86
3.26923 32.2625 5.99596 98 91 97
2.87726 23.1613 5.20443 111 125 49
2.87124 23.0123 5.66886 121 138 65
2.16609 7.02378 0.00499976 110 98 57
2.17821 7.32662 0.005 116 102 59
2.19187 7.66785 0.00500011 123 110 63
2.20739 8.0557 0.005 121 107 61
2.22521 8.50095 0.00499988 123 105 68
2.24337 8.95413 0.0233144 118 103 62
2.27025 9.62632 0.005 118 103 59
2.29936 10.3534 0.00499976 114 102 59
2.24273 8.92827 0.496509 123 109 66
2.34316 11.4445 0.174205 57.9372 64.9176 33.5059
2.34973 11.6047 0.358937 57.9372 67.0117 30.0157
2.34943 11.5928 0.573894 53.749 64.9176 21.6392
2.61603 18.2658 0.005 123 107 62
2.62919 18.5875 0.342544 49.5608 58.6353 35.6
2.9808 27.3779 0.100996 41.8823 71.2 41.8823
3.09229 30.1542 0.549366 116 105 62
3.0931 30.1612 1.19045 65 77 50
3.09316 30.1494 1.83117 87 100 67
3.28252 34.8652 2.58149 126 135 113
3.31476 35.6542 3.36938 107 114 9
3.67516 44.63 4.76875 101 123 144
3.29551 35.1423 4.8664 116 129 66
3.23529 33.6254 5.45396 93 106 0
2.79089 22.5388 4.62781 109 127 32
2.81621 23.1593 5.20374 115 135 56
2.80822 22.9504 5.65678 135 145 88
2.15313 7.02431 0.00499988 110 98 57
2.16435 7.32718 0.00500011 119 107 62
2.17699 7.66845 0.005 123 110 63
2.19136 8.05635 0.00499988 121 107 61
2.20786 8.50166 0.00499976 123 105 68
2.2239 8.93397 0.0293217 41.8823 71.898 41.8823
2.22447 8.94578 0.183447 116 100 58
2.22454 8.94423 0.339422 114 102 59
2.30932 11.24 0.00499976 123 109 66
2.32112 11.5551 0.153577 119 105 61
2.40262 13.7581 0.005 112 96 56
2.47232 15.6396 0.00499988 123 109 63
2.56971 18.2679 0.005 121 105 62
2.67591 21.1322 0.105069 132 123 68
2.91335 27.541 0.0898465 123 107 63
3.02728 30.6061 0.528526 118 105 61
3.00827 30.0783 1.19252 61 63 72
3.00394 29.947 1.83123 78 85 74
3.02577 30.5215 2.48027 64 46 38
3.20626 35.3733 3.35619 82 92 74
3.28123 37.3765 4.2609 100 120 17
3.19905 35.1449 4.86638 94 110 15
3.16299 34.157 5.51581 86 97 0
2.73038 22.5007 4.62218 118 116 43
2.75519 23.1573 5.20307 137 152 88
2.76341 23.3671 5.73494 105 120 55
2.14016 7.02479 0.00499988 110 98 57
2.15048 7.32771 0.00500011 119 107 62
2.16211 7.66902 0.005 125 110 63
2.17533 8.05696 0.00500011 121 107 61
2.19051 8.50232 0.00499976 123 105 68
2.20655 8.97253 0.018465 118 103 62
2.22887 9.62798 0.00500011 116 100 58
2.25366 10.3553 0.00499988 112 100 59
2.2576 10.4669 0.169627 123 109 66
2.32145 12.3446 0.00499988 119 105 59
2.29394 11.5283 0.371873 112 96 56
2.43379 15.6412 0.00500011 123 109 62
2.52165 18.2189 0.0109642 81.6706 84.4627 40.4863
2.6215 21.1467 0.103938 53.051 62.8235 32.8078
2.88078 28.7574 0.00500011 119 102 62
2.92878 30.1527 0.549853 70 82 59
2.91652 29.7769 1.19967 139 138 110
2.91972 29.8555 1.8313 112 122 98
2.94856 30.6858 2.4841 87 93 78
3.10841 35.355 3.35525 109 116 85
3.18499 37.5797 4.27494 145 153 145
3.14043 36.2553 4.96987 91 109 54
3.06736 34.0981 5.50861 125 136 74
2.6701 22.4627 4.61659 96 110 32
3.15387 36.5899 7.41189 101 112 40
2.69888 23.2802 5.71818 143 152 94
2.12719 7.02524 0.00499988 110 98 57
2.13661 7.32819 0.005 119 107 62
2.14723 7.66954 0.005 125 110 63
2.1593 8.05752 0.005 118 103 57
2.17316 8.50294 0.00499976 123 105 68
2.18819 8.98588 0.0148256 118 103 62
2.20818 9.62872 0.005 116 100 58
2.23081 10.3561 0.005 112 100 59
2.23446 10.4694 0.169288 123 110 66
2.26712 11.5193 0.160713 119 105 59
2.33671 13.7607 0.00499976 110 98 57
2.39526 15.6426 0.00499988 123 109 62
2.47704 18.2718 0.005 116 102 58
2.59951 22.2085 0.00500011 137 125 74
2.65135 23.8658 0.347382 41.1843 67.0117 39.7882
2.84007 29.9268 0.560572 63 68 58
2.83527 29.7556 1.2003 83 109 65
2.83742 29.8077 1.83136 45 51 30
2.84997 30.1939 2.47264 69 85 48
3.01365 35.432 3.35877 138 124 112
3.08493 37.6985 4.28311 103 110 62
3.09983 38.1544 5.14706 108 127 25
2.99991 34.93 5.60563 79 93 0
2.61541 22.5958 4.63508 111 123 68
3.0563 36.6942 7.42857 128 138 87
2.63648 23.2442 5.71109 120 121 60
2.11422 7.02565 0.00499988 110 98 57
2.12274 7.32863 0.005 119 107 62
2.13235 7.67001 0.00499988 125 110 63
2.14326 8.05804 0.00500011 118 103 57
2.1558 8.5035 0.00499988 123 103 65
2.17035 9.02075 0.005 118 103 62
2.18748 9.6294 0.005 116 100 58
2.20795 10.3569 0.00499964 112 100 59
2.20686 10.3126 0.202786 123 110 66
2.26393 12.3467 0.005 119 105 59
2.30375 13.7618 0.00499976 110 98 57
2.32416 14.4825 0.168283 123 109 62
2.43069 18.2735 0.00500011 123 107 61
2.54148 22.2108 0.00500011 137 125 74
2.71089 28.2307 0.0423031 116 100 59
2.75878 29.9174 0.561188 59 72 48
2.77125 30.3422 1.18677 79 66 57
2.75443 29.725 1.83143 66 81 51
2.75519 29.7336 2.46193 58 62 45
2.78028 30.6052 3.13374 121 136 69
3.26922 47.9273 4.99869 89 107 0
2.99033 38.0115 5.1335 125 140 44
2.89729 34.6916 5.57749 108 125 37
2.55634 22.6019 4.63575 103 112 40
2.95681 36.7521 7.43768 97 112 22
2.57429 23.2084 5.70404 86 96 9
2.10124 7.02602 0.00499988 110 98 57
2.10887 7.32903 0.00499988 119 107 62
2.11746 7.67044 0.005 125 110 63
2.12723 8.05851 0.00499988 118 103 57
2.13844 8.50401 0.00499976 123 103 65
2.15146 9.02131 0.005 110 96 54
2.16678 9.63002 0.005 110 96 56
2.18509 10.3576 0.00499988 112 100 59
2.18648 10.4071 0.182828 123 110 66
2.23517 12.3476 0.00500011 116 102 58
2.27079 13.7629 0.00499976 110 98 57
2.31816 15.6453 0.00500011 123 109 62
2.38435 18.275 0.005 123 107 61
2.48345 22.2128 0.005 136 123 74
2.52054 23.6747 0.361091 112 100 56
2.67875 29.9547 0.559616 107 95 53
2.67483 29.7778 1.20002 104 113 100
2.6902 30.3675 1.83151 84 95 63
3.10148 46.6078 4.90623 80 78 93
2.86916 37.3712 5.07353 81 101 4
2.80174 34.6756 5.5754 134 149 79
2.49725 22.6081 4.63645 137 154 98
2.52517 23.6958 5.29058 136 141 52
2.51245 23.1766 5.6978 132 137 77
2.08827 7.02636 0.00499988 110 98 57
2.095 7.32939 0.005 119 107 62
2.10258 7.67083 0.005 125 110 63
2.11119 8.05893 0.005 118 103 57
2.12108 8.50446 0.00500023 123 103 65
2.13257 9.02181 0.005 110 96 54
2.14608 9.63057 0.00500011 110 96 56
2.16128 10.3151 0.0152227 116 103 62
2.1819 11.2443 0.005 123 110 66
2.20641 12.3484 0.00500023 116 102 58
2.23783 13.7638 0.00500023 103 90 53
2.23044 13.4195 0.317993 127 110 66
2.33799 18.2764 0.00500011 121 107 61
2.40526 21.3038 0.0900371 51.6549 55.8431 39.0902
2.57093 28.7702 0.00497329 60.0314 67.0117 22.3372
2.5986 29.9962 0.557843 91 110 67
2.59284 29.7125 1.20165 62 70 46
2.598 29.9214 1.83157 93 100 68
2.59587 29.8016 2.46356 127 135 112
2.60462 30.1714 3.11346 108 125 58
2.78085 38.066 4.3085 120 142 44
2.77692 37.8583 5.11887 91 108 0
2.70646 34.6668 5.57419 135 144 86
2.43814 22.6143 4.63717 78 87 0
2.64406 31.8164 6.62553 96 98 13
2.89482 43.0076 9.43404 88 82 115
2.0753 7.02665 0.005 114 100 58
2.08112 7.3297 0.005 123 110 62
2.08769 7.67117 0.00499988 125 110 63
2.09515 8.0593 0.00499988 118 103 57
2.10372 8.50487 0.00499976 123 103 65
2.11367 9.02226 0.00499988 110 96 54
2.12538 9.63107 0.00499988 110 96 56
2.1385 10.3131 0.0158215 41.8823 71.898 41.8823
2.13645 10.1972 0.227706 121 109 63
2.17764 12.3491 0.00499988 116 102 58
2.13687 10.2036 0.590283 60.0314 66.3137 36.298
2.21835 14.4592 0.171988 127 110 66
2.27845 17.5885 0.0855604 121 107 61
2.25987 16.6031 0.528966 53.749 61.4274 24.4314
2.37388 22.5359 0.441011 121 107 62
2.51757 30.004 0.557623 111 134 92
2.54141 31.2175 1.16676 99 107 88
2.51013 29.562 1.83163 66 76 52
2.51974 30.0341 2.469 44 49 32
2.51901 29.9686 3.104 105 118 85
2.67512 38.0352 4.30628 79 99 0
2.66044 37.2391 5.06093 134 144 82
2.6181 35.013 5.61452 114 124 27
2.64126 36.1774 6.54386 111 135 58
2.55947 31.9192 6.6422 92 111 0
2.40816 24.0837 5.8683 107 125 44
2.06232 7.02691 0.00499976 114 100 58
2.06725 7.32998 0.00500011 123 110 62
2.0728 7.67147 0.00499988 121 107 62
2.07911 8.05962 0.005 118 103 59
2.08636 8.50522 0.005 123 103 65
2.09477 9.02265 0.005 110 96 54
2.10467 9.6315 0.005 110 96 56
2.115 10.266 0.0271007 116 103 62
2.11495 10.2532 0.215916 55.8431 64.9176 24.4314
2.11481 10.2348 0.403327 110 100 57
2.16711 13.4697 0.0536091 53.051 60.0314 27.2235
2.2025 15.6483 0.00500011 127 110 66
2.16752 13.4687 0.567163 114 100 57
2.30931 22.218 0.00499988 123 109 65
2.38223 26.6953 0.15036 57.9372 67.7098 23.7333
2.43509 29.9256 0.56141 42.5804 71.2 42.5804
2.44917 30.76 1.1775 119 109 62
2.42932 29.5055 1.83169 101 104 75
2.43874 30.0519 2.46945 54 57 35
2.44229 30.2375 3.11653 112 128 46
2.57092 38.0873 4.30988 86 79 86
2.55756 37.2276 5.05978 118 129 72
2.522 35.0116 5.61423 128 154 80
2.34463 24.1417 4.85167 99 110 12
2.33563 23.567 5.26893 154 162 106
2.32525 22.9089 5.6468 103 118 0
2.04934 7.02712 0.00499988 114 100 58
2.05337 7.33021 0.005 123 110 62
2.05791 7.67172 0.00499988 121 107 62
2.06307 8.0599 0.005 118 103 59
2.06899 8.50553 0.00499988 121 103 66
2.07587 9.02298 0.00500011 109 96 54
2.07413 8.88006 0.201755 110 96 56
2.09229 10.2566 0.0294122 41.1843 66.3137 39.0902
2.09122 10.1634 0.235092 121 109 63
2.12009 12.3503 0.005 110 100 57
2.09259 10.2444 0.583731 46.7686 57.2392 29.3176
2.16394 15.6491 0.00499976 128 110 68
2.13655 13.5537 0.557302 57.9372 63.5215 21.6392
2.20408 18.649 0.338217 123 107 65
2.33185 28.2812 0.039639 119 103 59
2.35347 29.875 0.563887 71 79 56
2.3641 30.6364 1.18047 100 114 98
2.34945 29.4931 1.83176 134 146 106
2.35268 29.6965 2.46121 87 90 77
2.35928 30.1521 3.11257 96 111 51
2.46335 37.9086 4.29736 166 175 120
2.4517 36.9856 5.03711 134 142 47
2.57324 46.0137 6.90052 105 124 44
2.28033 24.1034 4.84621 114 130 70
2.27239 23.4801 5.25453 97 114 27
2.26579 22.9588 5.65609 99 117 0
2.03637 7.0273 0.00499988 114 100 58
2.0395 7.33041 0.005 123 110 62
2.04302 7.67193 0.005 121 107 62
2.04703 8.06013 0.00499976 118 103 59
2.05163 8.50578 0.00499988 121 103 66
2.05697 9.02326 0.00500011 109 96 54
2.06326 9.63219 0.005 110 96 56
2.06974 10.2586 0.0290301 42.5804 71.898 42.5804
2.07183 10.4487 0.174534 116 105 59
2.09132 12.3508 0.00500011 110 100 57
2.10593 13.7666 0.00500011 105 91 52
2.10385 13.5413 0.301273 128 110 68
2.14585 17.6279 0.0812908 55.8431 64.9176 25.8274
2.15688 18.6761 0.335787 123 107 65
2.21267 24.0802 0.333396 119 103 59
2.27182 29.7925 0.567839 87 98 78
2.27831 30.3704 1.18675 27 36 27
2.27031 29.5434 1.83183 129 136 125
2.27927 30.3594 2.4767 85 96 61
2.27807 30.1917 3.11444 111 135 0
2.36221 38.2454 4.32092 106 111 44
2.34982 36.988 5.03731 109 123 27
2.43173 44.784 6.75668 124 140 49
2.21627 24.0652 4.84079 121 123 19
2.21008 23.4334 5.24679 81 105 13
2.20605 23.009 5.66546 134 137 72
2.02339 7.02744 0.00499988 114 100 58
2.02562 7.33056 0.00500011 123 110 62
2.02813 7.6721 0.00499988 121 107 62
2.03098 8.06031 0.005 118 103 59
2.03426 8.50598 0.00499988 121 103 66
2.03807 9.02348 0.00500011 109 96 54
2.04254 9.63243 0.005 110 96 56
2.0479 10.3603 0.00499988 116 103 62
2.04888 10.4759 0.168806 69.8039 76.0863 23.0353
2.06254 12.3511 0.00500011 112 100 57
2.07295 13.7671 0.005 109 95 54
2.07685 14.2751 0.198241 60.7294 69.1059 22.3372
2.10147 17.6374 0.0802653 41.8823 71.2 41.8823
2.13512 22.2216 0.005 123 109 65
2.18335 28.7802 0.005 118 103 59
2.19079 29.7276 0.57096 41.1843 69.8039 41.1843
2.20958 32.2175 1.1439 70 83 38
2.19236 29.7976 1.8319 106 122 90
2.19177 29.6467 2.46014 23 25 20
2.19414 29.8969 3.10073 66 73 54
2.24458 36.6295 4.20789 153 168 82
2.2478 36.9746 5.03606 90 111 0
2.30669 44.7873 6.75704 130 133 61
2.15243 24.0272 4.83542 144 158 101
2.15333 24.0918 5.35498 106 118 46
2.20862 31.3957 7.24535 115 127 50
2.01041 7.02755 0.00499988 114 100 58
2.01174 7.33067 0.005 123 110 62
2.01324 7.67222 0.00499988 121 107 62
2.01494 8.06044 0.00499988 118 103 59
2.0169 8.50613 0.00499988 121 103 66
2.01871 8.91398 0.0364413 59.3333 64.2196 44.6745
2.01917 8.99191 0.172661 52.3529 62.1255 34.2039
2.01892 8.90107 0.350829 116 103 62
2.02892 11.2469 0.005 116 105 59
2.03376 12.3514 0.00499988 112 100 57
2.03997 13.7675 0.005 109 95 54
2.04823 15.6509 0.00500011 125 109 66
2.05688 17.6073 0.0838479 61.4274 64.9176 42.5804
2.06586 19.6234 0.247528 123 110 66
2.09844 27.076 0.1242 40.4863 80.9725 24.4314
2.11048 29.7369 0.570614 112 103 96
2.1212 32.0726 1.14735 105 111 92
2.11034 29.4662 1.83196 121 127 110
2.11497 30.3989 2.47773 61 71 46
2.11317 29.8696 3.0995 100 105 96
2.14345 36.5632 4.2033 54 74 0
2.14767 37.3606 5.07214 70 91 0
2.18301 45.0923 6.79272 80 100 0
2.12513 32.0527 5.96363 73 57 57
2.08963 24.0735 5.35197 92 103 0
1.99743 7.02761 0.00499976 114 100 58
1.99786 7.33074 0.005 123 110 62
1.99835 7.6723 0.005 121 107 62
1.9989 8.06053 0.005 118 103 59
1.99953 8.50622 0.00499976 121 103 66
2.00026 9.02376 0.005 109 96 54
2.00113 9.63278 0.00499201 57.2392 64.2196 30.0157
2.00216 10.3606 0.00499988 116 103 62
2.00057 8.94998 0.493165 116 105 59
2.00498 12.3516 0.005 112 100 57
2.00699 13.7677 0.005 109 95 54
2.00778 14.2076 0.207827 48.1647 61.4274 21.6392
2.01339 18.2826 0.00499976 114 100 58
2.01898 22.2231 0.00499988 123 110 66
2.0246 26.0789 0.193954 123 110 62
2.0304 29.9481 0.560867 77 90 69
2.03364 31.8911 1.15165 96 112 88
2.03102 29.6446 1.83203 120 129 103
2.0315 29.6128 2.45947 70 83 51
2.03292 30.2273 3.11623 58 70 45
2.04282 36.5693 4.20379 90 107 31
2.04551 37.9271 5.12511 125 135 52
2.03787 32.0441 5.96245 87 68 77
2.02603 24.0553 5.349 97 111 13
1.98445 7.02763 0.00499976 114 102 58
1.98398 7.33077 0.00500011 123 110 62
1.98346 7.67233 0.005 121 107 62
1.98285 8.06057 0.00499976 123 110 63
1.98216 8.50627 0.005 123 107 69
1.98153 8.92859 0.032298 53.749 62.8235 36.298
1.98042 9.63281 0.00499988 112 100 57
1.97929 10.3607 0.00500023 112 100 62
1.97791 11.2472 0.005 116 103 58
1.9762 12.3518 0.00499988 110 98 56
1.97401 13.7679 0.00500011 109 95 54
1.97109 15.6514 0.00500023 123 105 65
1.96834 17.4769 0.0991765 50.2588 55.8431 34.2039
1.9609 22.2237 0.005 119 105 62
1.95507 26.0878 0.193395 40.4863 68.4078 39.7882
1.94974 29.727 0.571224 51 55 36
1.94855 30.8253 1.17648 61 76 40
1.95077 29.7403 1.8321 108 116 94
1.95032 30.3799 2.47742 97 107 86
1.95121 30.1459 3.11251 73 86 61
1.942 36.6847 4.21195 126 143 70
1.9413 37.6102 5.09559 108 125 34
1.95066 32.0345 5.96118 112 111 116
1.9526 31.4859 7.26242 82 96 0
1.97147 7.02762 0.005 114 102 58
1.97011 7.33076 0.005 123 110 62
1.96856 7.67232 0.005 121 107 62
1.96681 8.06056 0.00499988 123 110 63
1.96479 8.50626 0.00499988 123 107 69
1.96309 8.89115 0.0430335 41.8823 73.2941 43.2784
1.96315 8.90417 0.195666 112 100 57
1.96335 8.89081 0.353305 112 100 62
1.96373 8.83519 0.517576 116 103 58
1.94742 12.3518 0.005 110 98 56
1.94102 13.768 0.00500011 109 95 54
1.93251 15.6515 0.005 123 105 65
1.92062 18.2831 0.00499988 110 96 56
1.92461 17.4824 0.447425 51.6549 63.5215 26.5255
1.88293 26.6524 0.153977 125 110 62
1.87021 29.5448 0.579755 71 76 62
1.86494 30.8215 1.17664 62 62 49
1.871 29.6021 1.83216 72 83 53
1.86859 30.2534 2.47455 62 68 58
1.86935 30.2037 3.11528 83 93 3
1.83826 37.2961 4.25483 94 116 0
1.83854 37.3847 5.07465 93 107 34
1.86421 31.8614 5.93695 114 134 9
1.89898 24.1558 5.8816 130 134 63
1.9585 7.02757 0.005 114 102 58
1.95623 7.3307 0.00500011 123 110 62
1.95367 7.67226 0.00500011 121 107 62
1.95076 8.0605 0.00499988 123 110 63
1.94743 8.5062 0.00499988 123 107 69
1.94355 9.02375 0.005 114 100 58
1.93899 9.63276 0.00499976 112 100 57
1.94491 8.88198 0.355386 51.6549 60.0314 22.3372
1.92691 11.2472 0.005 116 103 58
1.91864 12.3518 0.005 110 98 56
1.91385 13.0056 0.130258 109 95 54
1.89394 15.6515 0.005 123 107 65
1.88081 17.4164 0.106266 110 96 56
1.84473 22.2242 0.00500011 119 107 62
1.79562 28.7848 0.005 128 114 66
1.78618 30.1059 0.55369 129 142 118
1.78841 29.8809 1.19854 99 107 94
1.78919 29.847 1.83224 92 104 78
1.77188 32.2351 2.52084 109 118 89
1.7696 32.6189 3.22798 127 135 65
1.73791 36.9633 4.23167 141 150 98
1.73315 37.6971 5.10397 112 114 130
1.77867 31.7066 5.91533 112 112 14
1.77829 31.8371 6.6286 125 135 68
1.83644 23.983 5.84917 100 108 40
1.94552 7.02748 0.00499988 114 102 58
1.94235 7.33061 0.00500011 123 110 62
1.93878 7.67217 0.00499988 121 107 62
1.93472 8.0604 0.005 123 110 63
1.93006 8.50609 0.00499976 123 107 69
1.9289 8.62583 0.119052 114 100 58
1.91828 9.63264 0.00499976 112 100 57
1.91067 10.3606 0.00500011 112 100 62
1.90141 11.2471 0.00499976 114 102 57
1.88986 12.3516 0.005 110 98 56
1.87505 13.7678 0.00500011 109 95 53
1.85536 15.6514 0.00500011 123 107 65
1.82785 18.2831 0.00499988 110 96 56
1.78665 22.2242 0.005 119 107 62
1.71806 28.785 0.005 125 110 66
1.70526 30.0528 0.556197 55 57 35
1.70854 29.7905 1.20069 90 103 71
1.70976 29.7247 1.8323 133 148 107
1.70077 30.6361 2.48364 83 97 61
1.67732 32.9397 3.24304 116 124 95
1.6369 36.8848 4.22633 125 137 75
1.54261 46.0366 5.88311 119 119 51
1.69234 31.7164 5.91688 126 137 43
1.69795 31.2293 6.52886 151 160 106
1.77326 23.9709 5.84704 123 140 69
1.93254 7.02735 0.00499976 114 102 58
1.92847 7.33047 0.00499988 123 110 62
1.92389 7.67202 0.00499988 121 107 62
1.91867 8.06025 0.00499976 123 110 63
1.91269 8.50593 0.00499988 123 107 69
1.90574 9.02347 0.00499988 114 100 58
1.89757 9.63246 0.00500011 114 100 58
1.8878 10.3604 0.00500011 114 102 62
1.8759 11.2469 0.00499976 114 102 57
1.86107 12.3514 0.005 110 98 56
1.84206 13.7676 0.00499988 109 95 53
1.81678 15.6512 0.005 123 107 65
1.78146 18.2829 0.00499988 116 100 59
1.72855 22.224 0.00500035 119 107 62
1.64048 28.785 0.00499988 125 110 66
1.6246 30.0029 0.558542 47 54 36
1.62786 29.8001 1.20052 87 97 64
1.62809 29.8217 1.83237 65 72 49
1.58871 32.8431 3.23867 137 140 94
1.5355 36.8687 4.22537 83 110 0
1.52481 37.7197 5.10646 88 100 22
1.48863 40.4863 6.25511 86 90 12
1.61121 31.3728 6.55271 96 99 0
1.70901 24.044 5.861 116 106 55
1.91956 7.02718 0.00499988 114 102 58
1.91459 7.3303 0.005 123 110 62
1.90899 7.67183 0.00499988 121 107 62
1.90263 8.06005 0.00500011 123 110 63
1.89533 8.50572 0.00499988 123 105 65
1.88684 9.02324 0.005 118 103 61
1.87686 9.63221 0.00499976 114 100 58
1.86493 10.3601 0.00499976 114 102 62
1.8504 11.2466 0.00500011 114 102 57
1.83229 12.3511 0.00499988 110 98 56
1.80908 13.7673 0.00499988 107 93 54
1.77821 15.6508 0.00499988 123 107 63
1.73507 18.2825 0.005 116 100 59
1.69537 20.7114 0.146108 118 105 61
1.56689 28.5436 0.0218524 121 105 62
1.50179 32.5365 0.440675 100 111 80
1.54722 29.8038 1.20047 102 110 93
1.54419 30.0204 1.83245 99 113 90
1.53741 30.4668 2.47988 108 120 103
1.27347 46.6929 4.91315 99 103 68
1.26629 47.1862 5.99104 90 108 0
1.37077 40.8275 6.2953 108 118 80
1.51592 31.9905 6.65455 99 94 88
1.64042 24.3579 5.92038 101 111 24
1.90658 7.02698 0.00499988 114 102 58
1.90072 7.33008 0.005 118 105 62
1.8941 7.6716 0.00499988 123 110 63
1.88659 8.0598 0.00499988 123 110 62
1.87796 8.50546 0.00499988 123 105 65
1.86794 9.02295 0.00500011 118 103 61
1.85615 9.63191 0.005 114 100 58
1.84206 10.3598 0.00499976 114 102 62
1.8249 11.2462 0.00499976 114 102 57
1.80351 12.3507 0.005 109 96 54
1.81012 12.0217 0.291763 107 93 54
1.73963 15.6504 0.005 123 107 63
1.70611 17.3864 0.109649 121 107 62
1.61238 22.2231 0.00499988 114 102 58
1.48967 28.5623 0.0205173 116 100 59
1.41293 32.5442 0.440317 72 76 61
1.45693 30.3034 1.1889 115 117 99
1.44818 30.783 1.83256 134 142 134
1.45259 30.5836 2.48271 96 96 68
1.33995 36.4414 3.40678 90 107 8
1.1329 47.2477 5.99712 102 126 19
1.26567 40.4391 7.14424 93 96 0
1.43861 31.4817 6.57121 82 94 3
1.57549 24.3838 5.92554 130 129 83
1.89361 7.02673 0.00499964 118 105 61
1.88684 7.32982 0.00499988 118 105 62
1.87921 7.67133 0.00499988 123 110 63
1.87055 8.0595 0.00499976 123 110 62
1.8606 8.50514 0.00499988 123 105 65
1.84904 9.02262 0.005 118 103 61
1.83544 9.63154 0.005 114 100 58
1.81919 10.3594 0.005 114 102 62
1.7994 11.2458 0.005 109 96 53
1.77474 12.3503 0.00499988 109 96 54
1.7815 12.0577 0.285776 107 93 54
1.70106 15.6498 0.00500011 125 107 65
1.66497 17.2706 0.123107 121 107 62
1.56949 21.5443 0.0682758 41.8823 67.0117 41.1843
1.46633 26.1689 0.187725 62.1255 69.8039 29.3176
1.32682 32.4262 0.445795 113 128 94
1.37806 30.1594 1.19227 105 118 95
1.33101 32.2901 1.83272 84 86 46
1.23818 36.5066 3.41 128 135 75
0.991628 47.6461 6.03472 129 137 71
1.34088 31.9762 5.26067 114 140 51
1.35327 31.4703 6.56971 127 136 46
1.5104 24.4098 5.93076 116 135 71
1.88063 7.02645 0.00499964 118 105 61
1.87296 7.32952 0.005 118 105 62
1.86432 7.67101 0.00499988 123 110 63
1.8545 8.05916 0.005 123 110 62
1.84323 8.50477 0.00499988 123 105 65
1.83014 9.02222 0.00499988 118 103 61
1.81473 9.63112 0.005 114 100 58
1.79632 10.3589 0.00500011 116 102 62
1.7938 10.4642 0.171026 109 96 53
1.74595 12.3497 0.005 109 96 54
1.71013 13.7657 0.005 110 96 58
1.66248 15.6491 0.005 125 107 65
1.59591 18.2806 0.005 123 110 62
1.62229 17.2529 0.46867 41.8823 69.8039 41.1843
1.48199 22.7971 0.423305 51.6549 63.5215 24.4314
1.22432 32.9816 0.419926 121 105 62
1.29435 30.2391 1.19045 111 122 95
1.2392 32.4402 1.8328 63 74 48
1.221 33.1832 2.54362 82 84 58
1.13704 36.5303 3.4113 149 160 93
0.872659 47.0307 4.9377 116 133 21
0.90723 45.6944 5.85275 98 118 0
1.26791 31.4617 6.5687 65 89 0
1.26022 31.7902 7.32206 137 146 87
1.86766 7.02613 0.00499988 118 105 61
1.85909 7.32917 0.005 118 105 62
1.84944 7.67064 0.00499988 123 110 63
1.83846 8.05877 0.00499976 123 110 62
1.82587 8.50436 0.00499988 123 105 65
1.81124 9.02177 0.00499988 121 107 62
1.79403 9.63063 0.00499988 118 105 61
1.77345 10.3584 0.00499988 116 102 62
1.7484 11.2447 0.00499988 109 96 53
1.77167 10.4321 0.366063 110 98 58
1.67715 13.765 0.005 110 96 58
1.62391 15.6483 0.00500035 125 107 66
1.54952 18.2797 0.00499988 123 110 62
1.43812 22.2205 0.005 121 107 62
1.32801 26.121 0.190943 118 102 62
1.13266 33.0379 0.41727 114 100 58
1.21133 30.2778 1.18956 119 138 118
1.1499 32.4701 1.83288 118 128 102
1.13981 32.8475 2.53591 102 112 59
1.16841 31.9161 5.2543 100 118 54
1.18259 31.4531 6.56773 98 120 2
1.38919 24.1246 5.87771 111 133 51
1.85468 7.02577 0.00499988 118 105 61
1.84522 7.32879 0.00499988 118 105 62
1.83455 7.67023 0.00499988 123 110 63
1.82242 8.05833 0.00499988 123 110 62
1.81354 8.344 0.0549136 178 158.455 157.059
1.79234 9.02126 0.00499988 121 107 62
1.77332 9.63008 0.00499988 118 105 61
1.75059 10.3578 0.005 116 102 62
1.74937 10.4016 0.184084 42.5804 69.8039 41.8823
1.74954 10.4012 0.371779 110 98 58
1.64418 13.7642 0.00499988 110 96 58
1.58534 15.6474 0.00499988 125 107 66
1.69719 12.0865 0.728673 39.0902 55.1451 23.7333
1.38004 22.2193 0.005 121 107 62
1.17705 28.7172 0.00940025 43.2784 74.6902 44.6745
1.51762 17.8453 1.12414 95 107 80
1.06864 32.2177 1.14453 46 50 31
1.04087 33.125 1.833 101 107 80
1.08209 31.8968 5.25242 137 143 62
1.84171 7.02537 0.00499988 118 105 61
1.83134 7.32837 0.005 118 105 62
1.81966 7.66978 0.00499988 123 110 63
1.80639 8.05785 0.00499976 123 110 61
1.79115 8.50336 0.00499988 123 107 65
1.77345 9.0207 0.00500011 121 107 62
1.75262 9.62947 0.00499988 118 105 61
1.72773 10.3571 0.00499988 116 102 62
1.69741 11.2433 0.00499988 102 93 51
1.65963 12.3475 0.005 110 98 58
1.66914 12.0764 0.282272 105 93 56
1.66905 12.0844 0.505636 125 107 66
1.45677 18.2774 0.00499976 127 114 65
1.37461 20.6824 0.148323 116 102 58
1.09813 28.7606 0.00625598 123 109 65
0.79095 37.7443 0.198162 49.5608 62.8235 21.6392
1.49172 17.2919 1.4911 97 100 74
1.48333 17.5454 1.83199 104 111 94
1.00622 31.574 5.21505 127 135 75
0.97817 32.431 6.72963 122 127 129
1.00176 31.7558 7.31725 125 123 61
1.82874 7.02493 0.00499988 118 105 61
1.81747 7.3279 0.00500011 118 105 62
1.80478 7.66928 0.00499988 125 110 65
1.79035 8.05732 0.005 123 110 61
1.77378 8.50279 0.005 123 107 65
1.75455 9.02008 0.00500011 121 107 62
1.73192 9.62879 0.005 118 105 61
1.70486 10.3564 0.005 114 100 62
1.67191 11.2425 0.00499988 102 93 51
1.63086 12.3466 0.00500011 110 95 56
1.57822 13.7622 0.00499976 105 93 56
1.50821 15.6452 0.00500011 123 103 62
1.41038 18.2761 0.00499976 127 114 65
1.32237 20.6465 0.151544 41.8823 75.3882 43.2784
1.43924 17.5177 0.792019 123 109 65
1.42634 17.8722 1.12282 121 110 65
1.44778 17.3037 1.49083 70 83 53
0.399456 45.595 5.84537 120 130 63
0.918421 31.624 5.22133 108 125 49
0.899555 32.1484 5.98092 96 121 31
0.884375 32.574 6.75375 98 109 27
1.81576 7.02446 0.00499976 118 105 61
1.8036 7.32739 0.00500023 118 105 61
1.78989 7.66874 0.005 125 110 65
1.77431 8.05674 0.00499976 123 110 61
1.75643 8.50216 0.005 123 107 65
1.73566 9.0194 0.005 121 107 62
1.71122 9.62806 0.005 121 109 62
1.682 10.3556 0.00499988 114 100 62
1.64642 11.2416 0.00499976 102 93 51
1.60209 12.3456 0.005 110 95 56
1.56164 13.3544 0.0718614 100 88 52
1.46965 15.6439 0.00500011 123 103 62
1.36401 18.2747 0.00499976 123 109 62
1.2058 22.2147 0.00500011 116 102 57
1.40195 17.3463 0.803918 67.0117 71.2 41.1843
1.38186 17.8535 1.12365 57 64 46
1.40204 17.3585 1.48955 110 121 100
1.39594 17.5173 1.83206 137 146 126
0.833216 31.6015 5.21916 116 134 55
0.813613 32.1054 5.97542 80 103 0
0.824236 31.8546 6.63601 138 156 79
1.8028 7.02394 0.00500011 121 109 62
1.78973 7.32685 0.00500011 118 105 61
1.77501 7.66815 0.005 125 110 65
1.75828 8.05611 0.00499976 123 110 61
1.73907 8.50149 0.005 123 107 65
1.71677 9.01867 0.005 121 105 63
1.69052 9.62726 0.005 121 109 62
1.65915 10.3547 0.00499988 114 100 62
1.62094 11.2406 0.005 100 90 48
1.57333 12.3446 0.005 110 95 56
1.51228 13.7599 0.005 100 88 52
1.43109 15.6426 0.005 127 107 66
1.31764 18.2731 0.00499988 123 109 62
1.14773 22.2128 0.005 123 107 59
1.35327 17.4622 0.79573 121 107 63
1.34347 17.6959 1.13093 69.1059 72.5961 41.1843
1.35681 17.3937 1.48873 60 73 40
0.748654 31.5668 5.21558 106 118 72
0.76892 31.122 6.51611 146 147 89
1.08004 23.895 5.83682 134 135 74
1.78983 7.02339 0.00499976 121 109 62
1.77586 7.32626 0.00500023 118 105 61
1.76013 7.66752 0.005 125 110 65
1.74225 8.05543 0.00499988 123 110 61
1.72172 8.50076 0.005 128 110 68
1.69787 9.01789 0.00499976 121 105 63
1.66982 9.62641 0.005 121 109 62
1.63629 10.3538 0.005 114 100 62
1.59545 11.2396 0.00499988 100 90 48
1.54456 12.3434 0.00499976 109 93 54
1.50264 13.2541 0.0879614 41.8823 68.4078 40.4863
1.50262 13.2591 0.339917 42.5804 69.1059 41.8823
1.50232 13.2701 0.589761 54.447 60.7294 30.0157
1.08965 22.2107 0.005 134 118 68
1.31022 17.4407 0.79713 121 109 62
0.446439 36.1674 0.271126 63.5215 71.898 27.9216
1.31732 17.2993 1.49091 79 80 55
1.33587 16.9032 1.83209 54 60 36
0.681118 31.1902 6.52803 98 115 0
1.61079 10.9683 3.3991 128 137 9
1.77686 7.0228 0.00499988 121 107 62
1.762 7.32563 0.00500023 118 105 61
1.74525 7.66685 0.00499988 125 110 65
1.72622 8.05471 0.00499976 123 110 61
1.70436 8.49998 0.005 128 110 68
1.67899 9.01704 0.005 121 105 63
1.64913 9.62549 0.00499988 121 109 62
1.61344 10.3528 0.005 116 102 63
1.56997 11.2385 0.00499988 100 90 48
1.5158 12.3422 0.005 109 93 54
1.47778 13.1186 0.110033 102 90 52
1.46543 13.3739 0.323589 42.5804 73.9921 43.2784
1.22491 18.2694 0.005 123 110 63
1.03159 22.2084 0.00499988 134 118 68
1.27757 17.2102 0.813135 41 49 26
1.2907 16.9487 1.1656 75 94 46
1.27316 17.3116 1.49062 115 128 99
1.29362 16.9004 1.83212 130 141 112
1.26917 17.4102 2.52022 61 65 46
0.908606 24.8075 5.47798 116 120 47
1.58733 10.9424 3.39445 116 126 14
1.7639 7.02217 0.00499988 121 107 62
1.74814 7.32496 0.005 118 105 61
1.73038 7.66613 0.00499988 125 110 65
1.71019 8.05394 0.005 123 109 62
1.68702 8.49915 0.005 128 110 68
1.66011 9.01614 0.005 121 105 63
1.62844 9.62451 0.00499976 119 107 62
1.59059 10.3517 0.005 116 102 63
1.54449 11.2373 0.00499976 103 95 52
1.48705 12.3408 0.00500023 109 93 54
1.44176 13.2123 0.0943902 52.3529 57.9372 35.6
1.43326 13.3793 0.322631 59.3333 65.6157 39.0902
1.24212 17.0486 0.147553 127 112 65
0.973539 22.206 0.005 137 123 72
1.2439 17.0252 0.825963 59 68 43
1.24142 17.0781 1.15951 121 142 103
1.23332 17.2391 1.49228 47 45 43
1.25241 16.8779 1.83216 91 100 73
1.22727 17.3718 2.51857 57 71 34
0.456242 32.2065 3.90266 120 135 59
0.842775 24.8059 5.47831 100 109 41
1.56401 10.9166 3.38985 92 110 34
1.73427 7.32424 0.00500011 118 105 61
1.7155 7.66537 0.00499988 123 110 65
1.69417 8.05312 0.00499988 123 109 62
1.66967 8.49827 0.00499976 128 110 68
1.64122 9.01519 0.005 121 105 63
1.60775 9.62347 0.00499988 119 107 62
1.56774 10.3505 0.005 116 102 63
1.51901 11.236 0.00499988 103 95 52
1.48885 11.7858 0.109374 109 93 54
1.41105 13.1994 0.0962571 55.8431 62.1255 30.0157
1.27689 15.6359 0.00499988 123 105 63
1.1322 18.2653 0.00499988 127 112 65
0.940059 21.7576 0.0466453 134 118 71
1.20275 16.9957 0.827901 65 79 46
1.20447 16.9697 1.16448 119 107 61
1.19051 17.2282 1.49252 120 132 105
1.20929 16.8921 1.8322 101 111 82
1.16673 17.6763 2.53294 48 57 38
0.367507 32.2207 3.90406 145 146 70
0.358947 32.4084 6.02138 124 135 72
0.776584 24.8107 5.47974 150 155 97
1.72041 7.32349 0.005 118 105 59
1.70063 7.66456 0.005 123 110 65
1.67814 8.05225 0.00499988 123 109 62
1.65232 8.49734 0.005 128 110 68
1.62234 9.01417 0.00499988 121 107 65
1.58706 9.62236 0.00499988 119 107 62
1.55242 10.22 0.0357012 118 103 65
1.49354 11.2347 0.00500011 103 95 52
1.42954 12.3379 0.00500011 107 91 52
1.34749 13.7524 0.00499988 100 86 50
1.23835 15.634 0.00499988 123 105 63
1.08585 18.263 0.00499988 127 110 66
0.857438 22.2007 0.00500011 134 118 71
0.477107 28.7574 0.00499976 125 110 68
1.16215 16.9642 1.16466 76 98 64
1.16497 16.93 2.16504 50 29 27
0.272303 32.3443 3.91315 117 135 107
0.710333 24.8155 5.48119 101 115 14
1.5249 10.7423 3.35749 82 109 0
1.70656 7.3227 0.005 118 105 59
1.68576 7.66371 0.005 123 110 65
1.66212 8.05134 0.00499988 123 109 62
1.63498 8.49635 0.00499988 128 110 68
1.60347 9.01311 0.005 121 107 65
1.56638 9.6212 0.00499988 119 107 62
1.52206 10.3481 0.005 118 103 65
1.46807 11.2333 0.00499964 103 95 52
1.4344 11.7868 0.108637 107 91 52
1.31455 13.7506 0.005 100 86 50
1.27664 14.3746 0.181906 123 105 63
1.03951 18.2606 0.00499976 127 110 66
0.799402 22.1978 0.00500011 134 121 74
1.12818 16.818 0.840058 83 92 71
1.12089 16.942 1.16561 110 117 111
1.10868 17.1468 1.49436 114 127 113
1.12949 16.8101 1.83226 62 76 43
1.12362 16.9109 2.16469 89 105 83
1.07505 17.7173 2.88755 125 135 34
0.197745 32.1453 5.98591 89 106 39
0.644042 24.8203 5.48267 97 110 0
1.50634 10.6514 3.34063 103 117 50
1.6927 7.32186 0.00500011 118 105 59
1.67089 7.66282 0.005 123 110 65
1.6461 8.05038 0.005 123 109 62
1.61764 8.49531 0.005 130 114 71
1.58459 9.01198 0.005 121 107 65
1.5457 9.61997 0.00499988 118 105 59
1.49922 10.3467 0.00500011 118 103 65
1.44261 11.2318 0.00499988 109 98 54
1.40677 11.7934 0.107102 53.051 67.0117 26.5255
1.28161 13.7487 0.00499988 100 86 50
1.24253 14.3621 0.183395 123 105 63
0.993178 18.258 0.00499988 128 112 71
0.741374 22.1946 0.00500023 136 123 74
1.08693 16.8032 0.840943 42 49 27
1.07694 16.9636 1.16452 67 83 43
1.01432 17.9468 1.47576 88 89 68
1.07832 16.9507 1.83231 69 56 43
1.03038 17.7141 2.88756 58 63 40
0.0246019 33.4619 4.71565 119 127 46
-0.110685 35.5897 5.69139 99 110 41
0.110318 32.1385 5.98579 97 115 0
0.605816 24.3845 5.4116 128 140 73
1.48354 10.6353 3.33788 115 129 83
1.67885 7.32098 0.005 118 105 59
1.65603 7.66188 0.005 123 110 65
1.63009 8.04937 0.00500023 125 110 63
1.6003 8.49422 0.00499988 130 114 71
1.56572 9.0108 0.00500011 121 107 65
1.52503 9.61869 0.00499988 118 105 59
1.47638 10.3453 0.005 118 103 65
1.41714 11.2302 0.00499988 109 98 54
1.34332 12.3329 0.005 112 98 56
1.24867 13.7468 0.00499988 100 85 52
1.12277 15.6274 0.00500023 123 105 63
0.946845 18.2553 0.00499976 128 112 71
1.0287 17.0386 0.486594 68 72 42
1.04339 16.8236 0.839358 128 114 68
1.02575 17.0911 1.15849 122 127 98
1.03716 16.9249 1.49946 98 114 93
1.03301 16.991 1.83235 71 87 58
1.02776 17.0737 2.1687 78 88 69
1.02337 17.1477 2.84805 64 74 49
-0.0256449 32.84 4.65804 135 153 70
0.0225363 32.1368 5.98644 123 135 72
0.524966 24.6251 5.452 109 119 4
0.101865 30.9667 7.17808 137 147 139
1.665 7.32006 0.00500011 118 105 59
1.64117 7.6609 0.00500011 123 110 65
1.61407 8.04831 0.005 125 110 63
1.58297 8.49308 0.00499988 130 114 71
1.54686 9.00957 0.005 121 107 65
1.50436 9.61734 0.005 118 105 59
1.45356 10.3438 0.00500011 116 102 62
1.39169 11.2286 0.00499964 109 98 54
1.3511 11.8102 0.103296 52.3529 62.8235 21.6392
1.21574 13.7447 0.005 100 85 52
1.08426 15.625 0.00500011 130 110 69
1.20952 13.8399 0.521561 127 110 71
0.984226 17.0612 0.484241 101 104 81
0.994327 16.9209 0.832378 134 121 72
1.01843 16.5805 1.18218 115 125 93
0.991693 16.9666 1.49846 69 74 53
0.995881 16.9107 1.83237 91 102 78
0.989269 17.0092 2.1673 70 75 46
0.912332 18.1141 2.55426 54 66 42
0.969399 17.3016 2.8591 127 136 77
0.958599 17.4604 3.21794 100 108 88
-0.0652606 32.1352 5.98713 126 130 79
0.456297 24.6704 5.46026 138 150 94
-0.0878198 32.4755 7.46425 134 143 78
1.65115 7.31911 0.00499988 118 105 59
1.62631 7.65987 0.005 119 105 62
1.59807 8.04721 0.00499988 125 110 63
1.56564 8.49189 0.00499988 130 114 71
1.52799 9.00827 0.00500011 121 107 66
1.48369 9.61593 0.005 118 105 59
1.43073 10.3423 0.005 116 102 62
1.36624 11.2269 0.00500011 110 96 54
1.28587 12.3292 0.005 112 98 56
1.18282 13.7425 0.00500011 102 90 53
1.04575 15.6225 0.00500011 130 110 69
1.17691 13.8295 0.522526 127 110 71
0.567329 22.1843 0.00500011 128 114 65
0.977099 16.5738 0.856503 58 68 44
0.86069 18.1733 1.10785 60 67 56
0.932442 17.1936 1.49315 61 72 50
0.961202 16.8031 1.8324 60 72 41
0.872085 18.0336 2.55069 115 135 4
0.943393 17.0589 2.84231 71 71 67
0.916653 17.4299 3.21541 105 110 73
-0.394202 35.4372 5.6761 60 84 0
-0.154032 32.1467 5.9897 137 138 88
0.389749 24.6824 5.46307 89 93 0
-0.0424895 30.6297 7.11677 109 123 0
1.63731 7.3181 0.00500023 118 105 59
1.61145 7.6588 0.00499988 119 105 62
1.58206 8.04606 0.005 125 110 63
1.54832 8.49065 0.00499988 130 114 71
1.50914 9.00692 0.00500011 121 107 66
1.46303 9.61446 0.005 118 105 59
1.40791 10.3406 0.00499988 116 102 62
1.34079 11.2251 0.00499976 110 96 54
1.25715 12.3272 0.005 118 102 59
1.14991 13.7402 0.005 102 90 53
1.14391 13.822 0.258206 134 112 71
0.807913 18.2464 0.00499976 123 107 68
0.878827 17.317 0.459812 91 102 81
0.93513 16.5795 0.855924 105 114 88
0.919692 16.7864 1.17237 84 94 63
0.907746 16.9474 1.49884 106 113 81
0.921258 16.773 1.83243 60 71 55
0.899986 17.057 2.16863 78 86 70
0.88019 17.3217 2.51756 59 71 41
0.896869 17.1055 2.84585 117 123 112
0.899582 17.0735 3.18235 116 125 61
-0.45734 34.9795 5.62333 135 154 92
-0.240557 32.1271 5.98793 141 153 94
0.323813 24.6851 5.46436 107 123 42
-0.131352 30.7008 7.13143 145 145 102
1.62346 7.31706 0.00500011 116 105 58
1.5966 7.65768 0.00499988 119 105 62
1.56606 8.04486 0.00499976 125 110 63
1.53099 8.48936 0.00499988 130 114 69
1.49028 9.00552 0.00500011 121 107 66
1.44237 9.61292 0.005 118 105 59
1.3851 10.339 0.00499988 116 102 62
1.31535 11.2232 0.005 110 96 54
1.22843 12.3251 0.00499988 118 102 59
1.11699 13.7378 0.00499988 102 90 53
1.18189 12.9191 0.385064 134 112 71
0.761612 18.2431 0.005 123 107 68
0.844596 17.196 0.470849 86 94 80
0.887404 16.6574 0.850283 68 75 52
0.898359 16.522 1.18457 111 129 102
0.858755 17.0274 1.49694 137 149 118
0.875339 16.8207 1.83247 102 108 92
0.825291 17.4589 2.17817 55 57 39
0.839476 17.2826 2.51592 63 78 42
0.854365 17.0973 2.84554 58 68 43
0.85718 17.0652 3.18192 135 142 91
-0.560925 35.0691 5.6348 87 105 0
-0.328066 32.1208 5.98806 79 97 0
0.257436 24.6926 5.46649 101 92 24
-0.204933 30.5716 7.1083 62 86 0
1.60963 7.31598 0.00499988 116 105 58
1.58175 7.65652 0.005 119 105 62
1.55006 8.04361 0.00499988 125 110 63
1.51368 8.48801 0.005 130 114 69
1.47143 9.00406 0.00499988 121 107 66
1.42171 9.61133 0.00499988 118 105 59
1.36229 10.3372 0.00499988 118 103 62
1.28991 11.2213 0.00499988 110 96 54
1.19973 12.3229 0.00499988 118 102 59
1.14889 12.9452 0.135216 103 90 54
1.15157 12.915 0.385325 62.8235 68.4078 21.6392
0.715326 18.2397 0.00499988 123 107 65
0.800659 17.2022 0.469987 86 97 53
